# .PCD v0.7 - Point Cloud Data file format
VERSION 0.7
FIELDS x y z intensity
SIZE 4 4 4 4
TYPE F F F F
COUNT 1 1 1 1
WIDTH 1408
HEIGHT 1
VIEWPOINT 0 0 0 1 0 0 0
POINTS 1408
DATA ascii
5.4173875 4.1752505 -0.28754658 0
4.6498961 0.72454965 -0.36230651 0
4.5873432 0.69399035 -0.36146772 0
4.3594289 -0.37421775 -0.36638373 0
5.5095057 4.1643186 -0.32508904 0
4.7876782 0.7992028 -0.36409295 0
4.7270236 0.76491487 -0.36331838 0
5.589673 4.1547379 -0.33434469 0
4.906095 0.87280703 -0.36554959 0
4.8473835 0.83517528 -0.3648369 0
5.0203514 0.95294452 -0.36687914 0
4.9637651 0.9120723 -0.36623055 0
5.1434131 1.0507115 -0.36821568 0
5.075809 0.99539506 -0.36749479 0
4.8397923 -0.2179184 -0.3734782 0
5.9787731 4.4427514 -0.29454497 0
5.1962776 1.0964792 -0.36875838 0
4.9726114 -0.1607213 -0.37532341 0
4.9065156 -0.19008183 -0.3744126 0
6.0385528 4.3334904 -0.29650027 0
6.0758529 4.2594404 -0.29776919 0
5.1030631 -0.098081827 -0.37708175 0
5.0381813 -0.13015151 -0.3762148 0
6.1021676 4.2031832 -0.29869786 0
6.1353898 4.1274304 -0.29990977 0
5.8349204 2.8167226 -0.287231 0
5.8302736 2.7730989 -0.30097595 0
5.2098465 -0.041861057 -0.37847987 0
5.1673698 -0.06482172 -0.3779287 0
5.0440564 -0.69931173 -0.29237735 0
6.1868119 4.0827565 -0.30382556 0
5.6801033 1.4836884 -0.29684666 0
5.2937632 0.0060074329 -0.37954789 0
5.1405091 -0.71088004 -0.29682475 0
6.2685809 4.0729742 -0.31161976 0
5.7408533 1.5110669 -0.30080438 0
5.6752601 1.4427326 -0.29890347 0
5.4579926 0.10807586 -0.38156822 0
5.3970394 0.068730354 -0.38083059 0
5.2397618 -0.72278404 -0.30150858 0
6.3544445 4.0627022 -0.31985924 0
5.5774069 0.19068885 -0.38296726 0
5.5180635 0.1488266 -0.38227877 0
5.3414268 -0.73497605 -0.30639306 0
5.6934433 0.27824283 -0.38426608 0
5.6358113 0.23392367 -0.38362798 0
5.4109159 -0.74330926 -0.30979013 0
5.8242321 0.38652825 -0.38565004 0
5.7500815 0.32389903 -0.38487577 0
5.914443 0.46782589 -0.38654962 0
6.0700688 0.62175035 -0.38798749 0
6.0020852 0.5520643 -0.38737971 0
6.2316589 0.80424273 -0.38929158 0
6.1684914 0.72985661 -0.38880721 0
6.1198826 0.67521572 -0.38841274 0
6.3373785 0.93865204 -0.39001971 0
6.2928071 0.88042307 -0.38972574 0
6.5290623 1.2229466 -0.39100164 0
6.4901962 1.160435 -0.39084306 0
6.3750038 -0.85889935 -0.36085013 0
6.3291578 -0.91008854 -0.3613795 0
6.1159749 -1.9363022 -0.41010278 0
6.4692249 -0.8701942 -0.36617401 0
6.2551451 -1.8642774 -0.41193545 0
6.1857834 -1.9007607 -0.41102695 0
6.5661716 -0.88181543 -0.37170389 0
6.3924775 -1.7885053 -0.41370466 0
6.3240471 -1.8268573 -0.41282806 0
7.5829144 3.1820226 -0.29822719 0
6.666007 -0.89378238 -0.37745121 0
6.4604254 -1.7492261 -0.41456512 0
7.5688591 3.065021 -0.29834697 0
7.5584011 2.9779789 -0.29854414 0
7.5480127 2.891535 -0.29884773 0
7.5171146 2.6344979 -0.3003073 0
7.5102863 2.5777178 -0.30074874 0
7.5000587 2.4926767 -0.30149543 0
7.4864311 2.3793869 -0.30263284 0
7.4727941 2.2660527 -0.30394191 0
7.4591269 2.1524878 -0.30542523 0
6.7689047 -0.90611601 -0.38342842 0
6.5948234 -1.6679075 -0.41623685 0
6.5278773 -1.7090254 -0.41540927 0
7.4488449 2.0670671 -0.30664822 0
7.438518 1.9812963 -0.30798393 0
7.424674 1.866327 -0.30991828 0
7.4142227 1.7795516 -0.31148654 0
7.4036899 1.6921171 -0.3131755 0
7.3895192 1.5745082 -0.31559309 0
7.3787847 1.4854276 -0.31753409 0
7.3679276 1.3953521 -0.31960717 0
7.3532681 1.2737544 -0.32255426 0
7.3421226 1.1813195 -0.32490644 0
7.3308091 1.087508 -0.32740653 0
6.875051 -0.91883874 -0.38964877 0
6.727149 -1.5829432 -0.41784203 0
6.6612515 -1.6258783 -0.41704786 0
7.3154759 0.96039426 -0.33094609 0
7.3037748 0.86340141 -0.3337616 0
7.291851 0.76458597 -0.33674604 0
7.2797351 0.66419268 -0.33987153 0
7.2331071 0.27796948 -0.35285956 0
7.2197385 0.16727531 -0.35683221 0
7.2106323 0.091882944 -0.35960397 0
7.2013712 0.015217185 -0.36247262 0
6.9846487 -0.93197501 -0.39612672 0
7.191947 -0.062787294 -0.36544177 0
7.182353 -0.14219797 -0.36851546 0
7.1725783 -0.22308731 -0.37169772 0
7.1626158 -0.30553055 -0.37499297 0
7.1524539 -0.38960838 -0.37840602 0
7.1367888 -0.519207 -0.38377371 0
7.1206741 -0.65251732 -0.38940319 0
7.1096096 -0.74402928 -0.3933405 0
7.098289 -0.83765149 -0.39742395 0
7.086699 -0.93349838 -0.4016605 0
1.5422266 5.0525327 -0.10776162 0
1.6055446 5.0449123 -0.10647352 0
1.6965371 5.0339613 -0.10468294 0
1.8117902 5.0200911 -0.10251302 0
1.9204675 5.0070128 -0.10058145 0
2.0232801 4.9946413 -0.098865621 0
2.1208456 4.9829016 -0.097346075 0
2.2137036 4.9717288 -0.096005961 0
2.3023291 4.9610662 -0.094830699 0
2.4076171 4.9483995 -0.093581468 0
2.585304 4.8151741 -0.12571402 0
2.7300456 4.9098558 -0.12906852 0
2.7004442 4.8597627 -0.12670852 0
2.6746857 4.8044186 -0.12411409 0
2.8165224 4.8994517 -0.12794918 0
2.5792372 3.8512583 -0.13018228 0
2.5679429 3.756449 -0.12514186 0
2.5556037 3.6559196 -0.13925138 0
2.5439765 3.5588624 -0.13757651 0
2.5328929 3.4659729 -0.13360611 0
1.695855 -0.29712629 -0.21587102 0
2.9164605 4.8874297 -0.12689586 0
2.5261931 3.4130745 -0.15181117 0
2.5191011 3.3536999 -0.14967369 0
2.5073822 3.2557127 -0.14696269 0
2.4961059 3.1616013 -0.145474 0
2.4841771 3.0622377 -0.14516564 0
2.4723356 2.9637935 -0.1461238 0
2.4603727 2.8645523 -0.14843175 0
2.4480865 2.7628238 -0.15209384 0
2.4362411 2.664933 -0.15684392 0
2.4236917 2.5585678 -0.14512971 0
2.411726 2.4595323 -0.14902103 0
2.4046059 2.4008789 -0.15309148 0
1.7522956 -0.3039124 -0.21581733 0
3.0126305 4.8759131 -0.12615067 0
2.3987563 2.3520961 -0.15261339 0
2.3881238 2.2617035 -0.14070329 0
2.3766263 2.1670544 -0.14771578 0
2.3640189 2.0633459 -0.15589239 0
2.3519015 1.9637332 -0.16415906 0
2.3404894 1.8699666 -0.17227773 0
2.329308 1.7758468 -0.16607672 0
2.3170767 1.6729887 -0.15988129 0
2.3045235 1.5697511 -0.16820623 0
2.2901771 1.4484031 -0.15583803 0
2.282382 1.3825169 -0.14944068 0
1.8356509 -0.31393385 -0.21581557 0
3.1056063 4.8647318 -0.12568904 0
2.2760613 1.3304515 -0.15307531 0
2.2659791 1.2474101 -0.15893203 0
2.2552338 1.1589113 -0.16523491 0
2.2435491 1.0626948 -0.17216778 0
2.2316945 0.95888329 -0.13894334 0
2.2227211 0.88482666 -0.14320402 0
2.2081704 0.76474929 -0.15016645 0
2.192389 0.63452697 -0.15777305 0
1.9697545 -0.27674699 -0.21281259 0
3.195857 4.8538799 -0.12549886 0
2.0635729 -0.31468534 -0.21465155 0
3.2982268 4.8415728 -0.12561271 0
2.1566997 -0.35253453 -0.21663915 0
3.3982289 4.8295527 -0.12605035 0
2.2599447 -0.36494875 -0.2172039 0
3.4962277 4.8177752 -0.12683511 0
2.3616629 -0.37717819 -0.2179091 0
3.6066215 4.8045111 -0.1281233 0
2.4620504 -0.3892467 -0.21875294 0
3.7159779 4.7913737 -0.12982549 0
3.6750619 4.7962885 -0.12912843 0
2.5612948 -0.40117693 -0.21973431 0
3.7977273 4.7815547 -0.13141054 0
2.6595764 -0.41299057 -0.22085261 0
3.9069817 4.7684345 -0.13389626 0
2.7570677 -0.42470837 -0.22210784 0
3.9895089 4.7585258 -0.13606459 0
2.853936 -0.43635058 -0.22350061 0
4.1008959 4.7451549 -0.13938196 0
2.950345 -0.44793606 -0.22503203 0
4.2001457 4.733243 -0.14269942 0
3.0464551 -0.45948529 -0.22670378 0
4.3018093 4.7210436 -0.14646438 0
3.1424248 -0.47101665 -0.22851814 0
4.4062495 4.7085128 -0.15067036 0
3.2384119 -0.48254895 -0.23047797 0
4.498661 4.6974277 -0.15468651 0
3.8788567 1.7273136 -0.18002997 0
3.8627071 1.6638916 -0.17036387 0
3.3345735 -0.49410152 -0.23258671 0
4.5700521 4.6744361 -0.15726832 0
4.5658479 4.5547686 -0.15136003 0
4.5538621 4.4592628 -0.17918697 0
4.5435147 4.372201 -0.17324735 0
4.533906 4.2913604 -0.1677943 0
3.9472249 1.731161 -0.18861076 0
3.4310682 -0.50569272 -0.23484841 0
3.5524383 -0.52027154 -0.23790644 0
4.8222632 4.6439199 -0.17003354 0
3.6748302 -0.53497124 -0.24120453 0
4.8947206 4.6352334 -0.17402026 0
3.7986522 -0.5498414 -0.24477524 0
3.7489185 -0.54386878 -0.24331154 0
4.9884844 4.6239939 -0.17934185 0
3.8738317 -0.55886912 -0.24706216 0
5.0878849 4.6118255 -0.14440478 0
3.9751551 -0.57103586 -0.25026911 0
5.191174 4.5994406 -0.14962512 0
4.0520511 -0.58026862 -0.25279689 0
5.2780476 4.5890236 -0.15413801 0
4.1299615 -0.58962274 -0.25545269 0
5.3926778 4.5752802 -0.16025084 0
4.2353501 -0.60227466 -0.25917253 0
5.471498 4.5486565 -0.16416162 0
5.4620848 4.4699407 -0.16194993 0
5.4501381 4.37006 -0.15923017 0
5.4361496 4.2531295 -0.15619245 0
5.4367909 4.1720905 -0.15480654 0
4.3427458 -0.6151669 -0.26311755 0
4.4246769 -0.62500143 -0.26622424 0
5.9979901 4.5026307 -0.19483279 0
6.0981588 4.4906254 -0.20086752 0
6.2031693 4.4780407 -0.20726056 0
5.8306255 2.8210325 -0.17880376 0
5.8247232 2.7719395 -0.17909899 0
6.2766786 4.4692307 -0.21178114 0
5.6897879 1.5208557 -0.20586932 0
5.6739159 1.4656419 -0.20715657 0
6.3681149 4.4419584 -0.21724528 0
6.3732219 4.3406281 -0.21635322 0
6.3635106 4.2595372 -0.21483696 0
6.3540912 4.1809044 -0.21344981 0
6.3448896 4.1040945 -0.21216071 0
5.7771487 1.510196 -0.21176258 0
6.3572049 4.0617027 -0.21263805 0
6.9709721 -1.9214878 -0.2416448 0
6.9557414 -2.0478439 -0.24461132 0
6.940011 -2.178339 -0.24769682 0
6.9237499 -2.3132348 -0.25090858 0
6.9069233 -2.4528174 -0.25425446 0
6.8894935 -2.5973949 -0.25774309 0
6.8714209 -2.7473028 -0.26138371 0
6.8526616 -2.9029062 -0.26518655 0
6.8331676 -3.0646033 -0.26916257 0
6.8128853 -3.2328305 -0.27332401 0
1.5436312 5.0517225 -0.004796355 0
1.6069399 5.0441136 -0.0051890528 0
1.6979191 5.0331788 -0.0057735443 0
1.8131552 5.0193291 -0.0065465625 0
1.9218163 5.0062695 -0.0073136548 0
2.0246134 4.9939151 -0.0080765234 0
2.1221638 4.9821916 -0.0088366782 0
2.2150083 4.9710336 -0.0095955459 0
2.3036203 4.9603848 -0.010354402 0
2.4088933 4.9477339 -0.011304925 0
2.5870872 4.8142557 -0.012683043 0
2.7319024 4.9089193 -0.014578695 0
2.7023807 4.858552 -0.014062404 0
2.6764524 4.8035173 -0.013589075 0
2.8183661 4.89853 -0.01556237 0
2.5808816 3.8501296 -0.034644883 0
2.5695179 3.7553604 -0.033628888 0
2.5577981 3.6576481 -0.032755315 0
2.5457933 3.5575893 -0.032061014 0
2.5346487 3.4647348 -0.03162425 0
1.6984507 -0.29823804 -0.087517254 0
2.9182906 4.8865232 -0.016759206 0
2.5279305 3.4118469 -0.051420733 0
2.5208087 3.352489 -0.051010631 0
2.5090497 3.254524 -0.050638583 0
2.4977465 3.1604259 -0.050697409 0
2.4858029 3.0610669 -0.051231038 0
2.4739599 2.9626176 -0.052231349 0
2.4620109 2.8633606 -0.053740613 0
2.4497511 2.7616053 -0.055771511 0
2.4379454 2.6636789 -0.05818342 0
2.4261243 2.5633006 -0.045452919 0
2.4135337 2.4581728 -0.043510217 0
2.4064553 2.3994823 -0.045105051 0
1.7548668 -0.30501628 -0.088231951 0
3.0144508 4.8750205 -0.01797751 0
2.4002244 2.3478363 -0.046583615 0
2.3896878 2.2605097 -0.049195915 0
2.3782573 2.1658006 -0.052184977 0
2.3657289 2.0620215 -0.05562399 0
2.3536925 1.9623367 -0.0590645 0
2.34236 1.8684978 -0.062415168 0
2.3299239 1.7655385 -0.066197403 0
2.3185945 1.6717541 -0.06972415 0
2.3061132 1.5684481 -0.073695093 0
2.2935891 1.4630927 -0.066674933 0
2.2841046 1.3810855 -0.04691571 0
1.8381873 -0.31502724 -0.089313336 0
3.1074195 4.8638506 -0.01922049 0
2.2778225 1.3289825 -0.04823022 0
2.2678022 1.2458804 -0.050341696 0
2.257123 1.1573156 -0.052607253 0
2.2455122 1.0610256 -0.055090465 0
2.2330546 0.95771813 -0.057771187 0
2.2241194 0.88362241 -0.059705265 0
2.2096314 0.76348042 -0.062859267 0
2.1939185 0.63318682 -0.066298403 0
1.9722085 -0.27780962 -0.089606121 0
3.1976657 4.8530083 -0.020491488 0
2.0660062 -0.3157444 -0.091660351 0
3.3000343 4.8407106 -0.022015506 0
2.1591148 -0.35359073 -0.093755066 0
3.400039 4.8286967 -0.023585849 0
2.2623255 -0.36599469 -0.095283441 0
3.4980445 4.8169236 -0.025213674 0
2.3640118 -0.37821507 -0.09683878 0
3.6084507 4.8036618 -0.02714839 0
2.4643703 -0.39027524 -0.098423056 0
3.7041838 4.7921629 -0.028914101 0
2.5635879 -0.40219855 -0.10003832 0
3.7995925 4.7807035 -0.03076186 0
2.661845 -0.41400599 -0.10168672 0
3.9088755 4.7675781 -0.032979235 0
2.7593136 -0.42571831 -0.1033705 0
3.9914291 4.7576642 -0.034726806 0
2.8561618 -0.43735552 -0.105092 0
4.1028571 4.7442822 -0.037183188 0
2.9525523 -0.44893765 -0.10685375 0
4.2021489 4.7323589 -0.039462313 0
3.0486462 -0.46048427 -0.10865839 0
4.3038616 4.7201452 -0.04188855 0
3.1446013 -0.47201347 -0.11050873 0
4.4083581 4.7075977 -0.044465601 0
3.2405753 -0.48354459 -0.11240773 0
4.5008235 4.6964955 -0.046819493 0
3.8797064 1.7370063 -0.078761615 0
3.8600214 1.678686 -0.080946088 0
3.3367257 -0.49509668 -0.11435864 0
4.5720577 4.6731691 -0.048637446 0
4.5675731 4.5532656 -0.048227016 0
4.5555143 4.4578362 -0.080510832 0
4.5450993 4.3708439 -0.078683861 0
4.535428 4.2900658 -0.077012241 0
3.9534223 1.7351116 -0.080976993 0
3.457432 -0.50959873 -0.11687858 0
3.5789213 -0.52419424 -0.11948591 0
4.8246422 4.6429205 -0.055521972 0
3.6769569 -0.53597212 -0.12164697 0
4.8971581 4.6342149 -0.057577085 0
3.8007741 -0.5508461 -0.12444404 0
3.7510424 -0.54487181 -0.12331075 0
4.9910011 4.6229491 -0.060277201 0
3.875952 -0.5598774 -0.12618195 0
5.0896196 4.6111107 -0.063170232 0
3.9772747 -0.5720489 -0.12856576 0
5.1929731 4.5987043 -0.066251889 0
4.0541711 -0.58128595 -0.13040617 0
5.2799039 4.5882692 -0.068884574 0
4.1320829 -0.59064484 -0.13230242 0
5.3946118 4.574501 -0.072411135 0
4.2374749 -0.60330415 -0.1349099 0
5.4730029 4.5474482 -0.074868135 0
5.4635563 4.4687643 -0.074678063 0
5.4515676 4.3689218 -0.074465737 0
5.4375319 4.2520351 -0.074265897 0
5.4386549 4.1713662 -0.074506477 0
4.3448749 -0.61620474 -0.13761842 0
4.4268103 -0.62604618 -0.13971706 0
6.0003953 4.5016994 -0.091802843 0
6.1006513 4.4896669 -0.0951159 0
6.2057543 4.4770527 -0.098611347 0
5.8269491 2.8201575 -0.098352641 0
5.8210654 2.7711759 -0.098791309 0
5.0462446 -0.70042133 -0.15647063 0
6.2793303 4.4682217 -0.10107338 0
5.9184155 2.7323177 -0.10276397 0
5.6827798 1.525172 -0.11637172 0
5.6701832 1.4680521 -0.11722212 0
5.1427083 -0.7120018 -0.15920436 0
6.3704329 4.4406991 -0.10420687 0
6.3751078 4.3391652 -0.10480754 0
6.3653698 4.2580986 -0.10486564 0
6.355926 4.1794872 -0.10494968 0
6.3467011 4.1026993 -0.1050537 0
5.7695613 1.5146916 -0.11944643 0
5.2419729 -0.72391868 -0.1620532 0
6.3599572 4.0607057 -0.10574552 0
5.3436513 -0.73612452 -0.16500022 0
5.4131498 -0.74446726 -0.16703399 0
6.3773789 -0.86020875 -0.19655862 0
6.3319764 -0.91197014 -0.1966427 0
6.4716148 -0.8715198 -0.19955516 0
6.5685763 -0.88315749 -0.2026557 0
7.5853219 3.180227 -0.1562984 0
6.668427 -0.89514208 -0.20586616 0
7.5712543 3.0632386 -0.15715091 0
7.5607886 2.9762061 -0.15782112 0
7.550395 2.88977 -0.15852264 0
7.5126538 2.5759749 -0.1613355 0
7.5024247 2.4909384 -0.1621749 0
7.4887967 2.3776526 -0.1633406 0
7.475162 2.2643211 -0.16456385 0
7.4614987 2.1507576 -0.16584674 0
6.7713399 -0.90749407 -0.20919292 0
7.451221 2.0653372 -0.16684742 0
7.4408998 1.9795656 -0.16788809 0
7.4270635 1.8645941 -0.16933098 0
7.4166203 1.7778163 -0.17045608 0
7.4060969 1.6903784 -0.171626 0
7.3919406 1.5727637 -0.17324819 0
7.381217 1.4836785 -0.17451346 0
7.3703732 1.3935969 -0.17582968 0
7.3557339 1.2719901 -0.17765597 0
7.3446045 1.1795467 -0.17908153 0
7.3333082 1.0857267 -0.18056589 0
6.877502 -0.92023635 -0.21264283 0
7.3180022 0.95859933 -0.18262789 0
7.3063211 0.86159551 -0.18423945 0
7.2944198 0.76276815 -0.18591994 0
7.2823286 0.66236174 -0.18765837 0
7.2358041 0.2760818 -0.19466741 0
7.2224674 0.16536963 -0.19675958 0
7.2133846 0.089964509 -0.19820654 0
7.2041473 0.01328516 -0.1996946 0
6.9871154 -0.93339241 -0.2162233 0
7.1947484 -0.064733028 -0.20122547 0
7.1851797 -0.14415812 -0.20280088 0
7.1754322 -0.22506261 -0.20442276 0
7.1654973 -0.3075217 -0.20609309 0
7.1553659 -0.39161587 -0.20781398 0
7.1397471 -0.52124095 -0.21050216 0
7.1236801 -0.65457845 -0.2133033 0
7.1126509 -0.74610949 -0.21525045 0
7.101367 -0.83975172 -0.21726096 0
7.0898142 -0.93561935 -0.21933788 0
1.5450344 5.0509129 0.098089337 0
1.6083343 5.0433154 0.096016429 0
1.6993004 5.0323973 0.093057692 0
1.8145195 5.0185676 0.089342833 0
1.9231639 5.005527 0.085878149 0
2.0259452 4.9931898 0.082637653 0
2.123481 4.981482 0.079598777 0
2.2163115 4.9703393 0.076741919 0
2.3049109 4.9597034 0.074049868 0
2.4101686 4.9470682 0.070900679 0
2.5882735 4.8136444 0.062522009 0
2.7331376 4.9082961 0.061595391 0
2.7036686 4.8577466 0.060865797 0
2.6776273 4.8029184 0.059947878 0
2.8195925 4.8979168 0.059211891 0
2.5825186 3.8490055 0.060440205 0
2.5710859 3.7542765 0.057450119 0
2.5593004 3.6566019 0.054541163 0
2.5472357 3.5565779 0.051762622 0
2.5360429 3.4637513 0.049391668 0
1.7012057 -0.29906511 0.040634587 0
2.9195087 4.8859205 0.056517322 0
2.529985 3.4103923 0.068085574 0
2.5228341 3.3510511 0.06643866 0
2.5110297 3.2531109 0.0640257 0
2.4996951 3.1590278 0.062124316 0
2.4877336 3.059674 0.060588136 0
2.475889 2.9612179 0.059537597 0
2.4639554 2.8619416 0.058979169 0
2.4517286 2.7601542 0.058890317 0
2.4399688 2.6621847 0.059262231 0
2.4276805 2.5621536 0.044441428 0
2.4149864 2.4570987 0.040308848 0
2.4079409 2.3983803 0.040680982 0
1.7575924 -0.30583501 0.039153028 0
3.015662 4.8744264 0.053992104 0
2.4017422 2.3467071 0.041083589 0
2.3912625 2.2593315 0.041876584 0
2.3798995 2.1645646 0.042892545 0
2.3674505 2.0607169 0.044169497 0
2.3554947 1.9609613 0.04553324 0
2.3442419 1.8670529 0.046928946 0
2.3318963 1.7640128 0.048566226 0
2.3206525 1.6701522 0.050139174 0
2.3082678 1.5667585 0.051957969 0
2.2954702 1.4616209 0.042743854 0
2.2852921 1.3801831 0.021277865 0
1.8408711 -0.31583405 0.036990721 0
3.1086257 4.8632641 0.051614553 0
2.2790358 1.3280573 0.021506857 0
2.2690575 1.2449175 0.021886978 0
2.2584233 1.1563122 0.022307368 0
2.2468617 1.0599771 0.022784462 0
2.234458 0.95661998 0.023312874 0
2.2255616 0.88248825 0.02370324 0
2.2111368 0.76228642 0.024354193 0
2.1954932 0.63192654 0.025078781 0
1.9747999 -0.27858448 0.033407822 0
3.1988692 4.8524284 0.049371034 0
2.0685682 -0.31651402 0.031139286 0
3.3012369 4.8401365 0.046908427 0
2.1616495 -0.35435629 0.028938144 0
3.401243 4.8281269 0.044584192 0
2.2648168 -0.36674857 0.026448138 0
3.4992533 4.8163571 0.042395256 0
2.3664622 -0.3789587 0.024044398 0
3.6096673 4.8030968 0.040030248 0
2.4667826 -0.39100981 0.021721238 0
3.7054114 4.7915978 0.038067609 0
2.5659647 -0.40292454 0.019473407 0
3.8008332 4.7801371 0.036199648 0
2.6641881 -0.41472435 0.017296067 0
3.9101357 4.7670083 0.034160893 0
2.7616258 -0.42642975 0.015184727 0
3.9927788 4.7573881 0.032701142 0
2.8584447 -0.43806148 0.013135234 0
4.1042519 4.7439976 0.030817481 0
2.9548087 -0.44963861 0.011143742 0
4.2035875 4.7320652 0.029229226 0
3.0508776 -0.46118093 0.0092066396 0
4.3053489 4.71984 0.027693765 0
3.1468096 -0.47270679 0.0073205866 0
4.4098992 4.7072797 0.026200667 0
3.2427621 -0.48423576 0.0054824259 0
4.5024166 4.6961646 0.024952957 0
3.8737512 1.7303042 0.0048681395 0
3.8518424 1.6449156 0.029142773 0
3.3388927 -0.49578643 0.0036892258 0
4.5734901 4.6724997 0.023617474 0
4.5687542 4.5523205 0.020346906 0
4.5577435 4.4559922 0.050624527 0
4.5472383 4.3690896 0.046987358 0
4.5374846 4.288393 0.043634787 0
3.9532719 1.7386489 0.0041506076 0
3.4595766 -0.51028752 0.0015087835 0
4.0124426 1.7320204 0.025669944 0
3.5810463 -0.52488303 -0.00061484613 0
4.8264327 4.642539 0.020672813 0
3.6790671 -0.53666186 -0.0022714715 0
4.8989992 4.6338196 0.019903321 0
3.7780056 -0.54855108 -0.0038944334 0
4.9929109 4.6225352 0.018948048 0
3.8780382 -0.56057215 -0.0054858904 0
5.0916038 4.6106758 0.017999694 0
3.9793506 -0.57274723 -0.0070479233 0
5.1950383 4.5982466 0.017055485 0
4.056241 -0.58198786 -0.0082021412 0
5.2820401 4.5877919 0.016302006 0
4.1341472 -0.59135008 -0.0093401056 0
5.3968458 4.5739956 0.01536035 0
4.239532 -0.60401583 -0.010837082 0
5.4745364 4.5462675 0.014307965 0
5.4650555 4.4676137 0.012479255 0
5.4530258 4.3678083 0.010187663 0
5.4389429 4.2509642 0.0075535644 0
5.4409051 4.1709061 0.0057357755 0
4.3469267 -0.61692309 -0.012311254 0
4.4288592 -0.62677026 -0.013403626 0
6.0031996 4.5010328 0.011152364 0
6.103559 4.4889708 0.01056006 0
6.2087722 4.4763255 0.0099612921 0
5.8233223 2.8192871 -0.018356998 0
5.8174586 2.7704148 -0.018937655 0
5.0482907 -0.70120192 -0.020774499 0
6.2824278 4.467473 0.0095572099 0
5.8671412 2.7345726 -0.019380141 0
5.6720867 1.5102801 -0.027742296 0
5.6640606 1.4501281 -0.027896257 0
5.1447573 -0.71279311 -0.021797715 0
6.372993 4.4395771 0.0087190848 0
6.3770204 4.3377185 0.0065932162 0
6.3672562 4.2566748 0.0049629342 0
6.3577881 4.1780858 0.0034097414 0
6.3485403 4.1013184 0.0019144937 0
5.7614112 1.5195323 -0.027995801 0
5.2440243 -0.72472119 -0.022814956 0
6.3632894 4.0599523 0.0010832977 0
5.3457065 -0.73693943 -0.023828056 0
5.4152074 -0.74529076 -0.024501072 0
6.3794885 -0.86117005 -0.032532066 0
6.334826 -0.91389585 -0.032123305 0
6.4737291 -0.87249589 -0.033205971 0
6.5706968 -0.88414907 -0.033882089 0
7.5877562 3.1784365 -0.0145524 0
6.6705523 -0.89615011 -0.034560814 0
7.5736775 3.0614605 -0.016136695 0
7.5632043 2.9744358 -0.017279323 0
7.552803 2.8880072 -0.018378235 0
7.5150485 2.5742323 -0.022101721 0
7.5048184 2.4891987 -0.023033667 0
7.4911909 2.3759165 -0.02422772 0
7.4775586 2.2625871 -0.025365237 0
7.4638991 2.149024 -0.02644797 0
6.7734709 -0.90851903 -0.035242535 0
7.4536247 2.0636029 -0.027226642 0
7.4433093 1.9778299 -0.027972685 0
7.4294829 1.8628553 -0.028924776 0
7.4190478 1.7760742 -0.029607357 0
7.4085331 1.6886326 -0.030258911 0
7.3943906 1.5710111 -0.031086788 0
7.3836799 1.4819198 -0.031677317 0
7.3728495 1.3918309 -0.032237656 0
7.3582296 1.2702136 -0.032944676 0
7.3471165 1.1777618 -0.033444889 0
7.3358388 1.0839314 -0.033914987 0
6.8796387 -0.92127848 -0.035927691 0
7.3205571 0.95678997 -0.034501355 0
7.3088975 0.85977435 -0.034910604 0
7.2970195 0.76093364 -0.035288945 0
7.2849522 0.66051328 -0.035642229 0
7.2385311 0.27417254 -0.036680494 0
7.2252278 0.16344106 -0.036894806 0
7.216167 0.088022351 -0.037018761 0
7.206954 0.011328936 -0.03712818 0
6.9892573 -0.93445301 -0.036616724 0
7.1975803 -0.066704035 -0.037222698 0
7.1880379 -0.14614499 -0.037301976 0
7.178318 -0.22706532 -0.037365627 0
7.1684108 -0.30954123 -0.03741321 0
7.1583085 -0.39365244 -0.037444301 0
7.1427369 -0.5233047 -0.037456688 0
7.126719 -0.65667117 -0.037433445 0
7.1157241 -0.74822283 -0.03739325 0
7.1044755 -0.84188652 -0.037333682 0
7.0929594 -0.93777609 -0.03725405 0
1.546131 5.0504389 0.20118035 0
1.6094313 5.0428519 0.19742312 0
1.7003978 5.0319486 0.19208437 0
1.8156171 5.0181379 0.1854206 0
1.9242623 5.0051146 0.17925188 0
2.0270433 4.9927931 0.17352787 0
2.1245797 4.9811001 0.16820495 0
2.2174103 4.9699697 0.16324517 0
2.3060107 4.9593468 0.15861544 0
2.4112701 4.9467249 0.15326248 0
2.5899005 4.8130465 0.17568953 0
2.73487 4.9076772 0.1762165 0
2.705627 4.8564849 0.17354871 0
2.6792524 4.8023367 0.17060401 0
2.8213248 4.8973112 0.17172562 0
2.5841641 3.8478756 0.15600604 0
2.5726616 3.7531867 0.14898893 0
2.5607777 3.6523166 0.16100606 0
2.5490587 3.5553002 0.15730813 0
2.5378048 3.4625094 0.15140122 0
1.7037995 -0.30017638 0.16889593 0
2.9212439 4.8853288 0.1667763 0
2.5317194 3.4091654 0.16850555 0
2.5245326 3.3498445 0.1651303 0
2.5126841 3.2519267 0.16037691 0
2.5013223 3.1578562 0.1569269 0
2.489346 3.0585051 0.15454811 0
2.4775004 2.9600427 0.15345527 0
2.465579 2.8607492 0.15369596 0
2.4533792 2.758934 0.15523925 0
2.4416585 2.6609275 0.15795079 0
2.4286578 2.5548651 0.14402042 0
2.4167848 2.4557347 0.14584956 0
2.409781 2.3969793 0.14869878 0
1.7601619 -0.30693841 0.16664699 0
3.0174022 4.8738465 0.16228355 0
2.4038935 2.3482103 0.14720458 0
2.3928103 2.2581279 0.13340971 0
2.3815141 2.1633 0.13845162 0
2.3691442 2.0593798 0.14446925 0
2.3572688 1.9595506 0.15066245 0
2.3460951 1.8655686 0.1568296 0
2.3346596 1.7716119 0.14866655 0
2.3221712 1.6689173 0.14032668 0
2.3098588 1.5654551 0.14650257 0
2.2950511 1.4444559 0.13160482 0
2.2870159 1.3787522 0.12383386 0
1.8434057 -0.31692624 0.16340302 0
3.1103733 4.8626943 0.15819797 0
2.2807982 1.3265887 0.1263845 0
2.2708817 1.2433881 0.13051233 0
2.2603142 1.1547167 0.13497281 0
2.2488263 1.0583081 0.13990276 0
2.2358191 0.95545578 0.10450656 0
2.2269609 0.88128471 0.10722481 0
2.2125988 0.76101804 0.11168647 0
2.1970239 0.63058662 0.11658108 0
1.977252 -0.2796464 0.15652727 0
3.2006264 4.8518667 0.15449035 0
2.0709994 -0.31757236 0.15404446 0
3.303009 4.839582 0.15061468 0
2.164063 -0.35541153 0.15173699 0
3.4030333 4.8275781 0.14715545 0
2.2671959 -0.3677938 0.14828461 0
3.5010653 4.8158107 0.14412163 0
2.3688097 -0.37999487 0.14503181 0
3.6115098 4.8025513 0.14110866 0
2.4691007 -0.39203787 0.14196914 0
3.7072847 4.7910504 0.13884935 0
2.5682561 -0.40394521 0.13908821 0
3.802742 4.7795858 0.13695069 0
2.6664553 -0.41573858 0.13638143 0
3.9120908 4.7664504 0.13518047 0
2.7638705 -0.42743921 0.1338421 0
3.9947004 4.756525 0.13413417 0
2.8606691 -0.43906641 0.13146424 0
4.106215 4.7431245 0.13311297 0
2.9570146 -0.45063996 0.1292427 0
4.2055926 4.7311802 0.13256489 0
3.0530667 -0.46217918 0.12717289 0
4.3074036 4.7189407 0.13237055 0
3.148984 -0.47370315 0.12525091 0
4.4120097 4.7063637 0.13250931 0
3.2449238 -0.48523092 0.12347348 0
4.5045815 4.6952314 0.13292685 0
3.8751159 1.7308041 0.11003415 0
3.8530037 1.6442484 0.096288167 0
3.3410435 -0.49678087 0.12183789 0
4.5754967 4.6712332 0.13227993 0
4.5704794 4.5508199 0.12343825 0
4.5593958 4.454567 0.14925247 0
4.5488234 4.3677335 0.14150675 0
4.5390067 4.2870998 0.13437635 0
3.9547436 1.7385287 0.11085439 0
3.4617162 -0.51128268 0.11999693 0
4.0138092 1.7314138 0.11311251 0
3.5831766 -0.52588081 0.11835705 0
4.8296099 4.6412044 0.17361712 0
4.7606072 4.4768276 0.087095752 0
3.6811924 -0.53766179 0.11720498 0
4.9022546 4.6324592 0.17543003 0
4.8541365 4.4091158 0.084896207 0
3.7801266 -0.54955435 0.11618967 0
4.9962721 4.6211405 0.17797956 0
4.9441757 4.3361979 0.082714282 0
3.8801572 -0.5615797 0.11531153 0
5.0304399 4.2582259 0.080556273 0
3.9814692 -0.57375979 0.11457156 0
5.1089268 4.2103558 0.079950608 0
4.0583591 -0.58300447 0.11410378 0
5.2124805 4.1978951 0.081727855 0
4.1362667 -0.59237194 0.1137244 0
5.323175 4.1845741 0.08376576 0
4.2416549 -0.6050446 0.11333833 0
5.418242 4.1731329 0.085630134 0
4.3490543 -0.61796021 0.11309899 0
5.5195775 4.1608467 0.087714806 0
5.600112 4.1511536 0.08943928 0
6.21136 4.4753366 0.11873137 0
5.8240728 2.8125224 0.088165008 0
5.8190722 2.7689345 0.10083406 0
6.2850828 4.4664631 0.12039015 0
5.869863 2.7334676 0.062233999 0
5.6725817 1.5098648 0.060857549 0
5.6650457 1.4494205 0.061637759 0
6.3753128 4.4383178 0.12181347 0
6.3789058 4.336256 0.11812156 0
6.3691158 4.2552361 0.11491743 0
6.3596239 4.1766691 0.11189353 0
6.3503523 4.0999227 0.10900559 0
5.761517 1.5193231 0.063059747 0
6.9745369 -1.9238873 -0.035486311 0
6.959363 -2.0502763 -0.035152368 0
6.9436927 -2.1808052 -0.034785669 0
6.927494 -2.3157372 -0.034384448 0
6.9107332 -2.4553564 -0.033946715 0
6.8933735 -2.5999725 -0.03347034 0
6.8753729 -2.7499204 -0.03295302 0
6.8566899 -2.9055667 -0.032392204 0
6.8372755 -3.0673079 -0.031785093 0
6.8170767 -3.2355816 -0.031128686 0
1.5475425 5.0496244 0.30467781 0
1.610834 5.0420489 0.29922891 0
1.7017872 5.0311623 0.29149976 0
1.8169893 5.0173721 0.2818743 0
1.9256176 5.0043674 0.27298996 0
2.028383 4.9920635 0.26477185 0
2.1259046 4.9803863 0.25715512 0
2.2187212 4.9692712 0.2500836 0
2.3079617 4.9583173 0.28623024 0
2.4131987 4.9457188 0.27755025 0
2.5916979 4.8121204 0.28963658 0
2.7367411 4.906733 0.29162571 0
2.7075775 4.8552647 0.28699124 0
2.6810327 4.8014278 0.28202131 0
2.8231835 4.8963814 0.28501219 0
2.5858476 3.846715 0.25299865 0
2.5739615 3.7473683 0.25544938 0
2.5634918 3.6578283 0.27082616 0
2.5509145 3.5539999 0.26501068 0
2.5395982 3.4612448 0.25549489 0
2.9230888 4.8844151 0.27779183 0
2.5331328 3.4081655 0.25059992 0
2.5255213 3.3436904 0.25773308 0
2.5143828 3.250711 0.25931096 0
2.5029938 3.1566525 0.25427052 0
2.4910018 3.0573051 0.2510263 0
2.4791546 2.9588361 0.2498901 0
2.4672468 2.8595247 0.25095141 0
2.4550743 2.7576807 0.25417086 0
2.4438505 2.6647689 0.25065514 0
2.4307096 2.5561724 0.24533583 0
2.418632 2.4543476 0.2535463 0
2.41167 2.3955545 0.25892374 0
3.019237 4.8729467 0.27131745 0
2.4050043 2.3403788 0.25681141 0
2.3951938 2.2612872 0.23995693 0
2.3831904 2.1620398 0.23543611 0
2.3709011 2.0580497 0.24626595 0
2.359108 1.9581487 0.25736168 0
2.3487368 1.872439 0.25320053 0
2.3340936 1.7544177 0.22861032 0
2.3237264 1.6676905 0.23145059 0
2.3114877 1.5641607 0.24202968 0
2.298831 1.4588746 0.24174057 0
2.2887516 1.3773116 0.22707771 0
3.1122007 4.8618059 0.26551157 0
2.2825723 1.3251103 0.23196593 0
2.2727182 1.2418483 0.2398673 0
2.2622182 1.1531106 0.24839579 0
2.2508044 1.056628 0.25780934 0
2.2378726 0.95369792 0.22701788 0
2.2290726 0.8794682 0.23324941 0
2.2140663 0.75974441 0.19935308 0
2.1985602 0.6292417 0.2084344 0
3.2024493 4.8509884 0.26032943 0
3.3048306 4.8387127 0.25503069 0
3.4048572 4.826715 0.2504285 0
3.5028963 4.8149524 0.24654397 0
3.6133537 4.8016953 0.24287863 0
3.7091439 4.790195 0.24032076 0
2.5705554 -0.40496945 0.25910622 0
3.8046217 4.778728 0.2383915 0
2.6687298 -0.41675663 0.25586838 0
3.9139996 4.7655873 0.23689207 0
2.7661226 -0.42845154 0.25289971 0
3.9967084 4.7559533 0.23631044 0
2.8629007 -0.44007421 0.25019252 0
4.1082821 4.7425408 0.23615806 0
2.959228 -0.45164442 0.24774016 0
4.2077179 4.7305832 0.23665792 0
3.0552638 -0.46318078 0.24553724 0
4.3095946 4.718328 0.23781471 0
3.1511664 -0.47470284 0.24357921 0
4.4142747 4.7057314 0.23959765 0
3.2470934 -0.48622918 0.2418627 0
4.5069165 4.694581 0.24169309 0
3.8754153 1.7351477 0.21609551 0
3.8483868 1.651105 0.21969017 0
3.3432019 -0.49777913 0.24038523 0
4.5776162 4.6701317 0.24168852 0
4.5722504 4.549365 0.22718912 0
4.5610991 4.4531817 0.24887419 0
4.5504584 4.366415 0.23697953 0
4.5405788 4.2858429 0.22603409 0
3.9552031 1.7411959 0.21884733 0
3.4638629 -0.51228166 0.23888476 0
4.0196714 1.7363508 0.23103452 0
3.585314 -0.52688122 0.23773018 0
4.8314204 4.6408143 0.25078049 0
3.6833246 -0.53866506 0.23708421 0
4.9040413 4.6319613 0.25388211 0
4.9979672 4.6204367 0.2581709 0
5.0959601 4.608881 0.22201858 0
5.1995568 4.5963984 0.22645113 0
5.2789593 4.5869203 0.21562271 0
5.3769832 4.5752912 0.19065136 0
5.4628816 4.5552797 0.19327755 0
5.4680042 4.4652576 0.18730228 0
5.4566131 4.3649554 0.22277153 0
5.4424114 4.24822 0.2130221 0
5.4455862 4.1690865 0.20746605 0
6.0080256 4.4991646 0.21785623 0
6.1085577 4.4870481 0.22273065 0
6.2139592 4.4743438 0.22795223 0
5.8207221 2.822232 0.19492532 0
5.8099751 2.7517059 0.22012271 0
5.0822816 -0.70613575 0.11524181 0
6.2877483 4.4654493 0.2316834 0
5.8773203 2.7320583 0.14456087 0
5.6738272 1.5089694 0.14974922 0
5.6665778 1.4483459 0.15149023 0
5.146955 -0.71391416 0.11571693 0
6.3776412 4.4370527 0.23534581 0
6.3807988 4.3347878 0.23004963 0
6.3709826 4.2537923 0.2252661 0
6.361465 4.1752477 0.22076635 0
6.3521705 4.0985222 0.21648082 0
5.7623796 1.5186503 0.15438145 0
5.2462349 -0.72585511 0.11653199 0
5.3479295 -0.73808718 0.11745354 0
5.4174399 -0.7464478 0.11814177 0
7.1343269 4.3790112 0.14195462 0
6.3818622 -0.86247826 0.13161157 0
6.3376446 -0.91577744 0.13258255 0
6.4761171 -0.87382007 0.13326095 0
6.5730991 -0.88549042 0.13500988 0
7.5866222 3.1472464 0.12675357 0
6.6729703 -0.89750886 0.13686359 0
7.5760727 3.0596786 0.12504077 0
6.7759027 -0.9098959 0.13882753 0
6.8820863 -0.92267489 0.14090778 0
7.2412291 0.27228475 0.12148845 0
7.2279577 0.16153514 0.12315406 0
7.2189198 0.086103559 0.12435453 0
7.2097316 0.0093967915 0.12562522 0
6.9917221 -0.93586922 0.14311081 0
7.2003818 -0.068650126 0.12696861 0
7.1908646 -0.14810514 0.12838708 0
7.1811719 -0.22904086 0.12988332 0
7.1712937 -0.3115325 0.13146019 0
7.1612196 -0.39566016 0.13312073 0
7.1456943 -0.52533889 0.13578698 0
7.1297259 -0.65873253 0.13863762 0
7.1187654 -0.75030351 0.14066727 0
7.1075525 -0.84398699 0.14279911 0
7.0960751 -0.93989766 0.14503759 0
1.5489637 5.0488048 0.40885642 0
1.6122458 5.0412407 0.40170389 0
1.7031857 5.0303707 0.39156771 0
1.8183703 5.0166011 0.37895986 0
1.9269817 5.0036154 0.36734095 0
2.0297318 4.9913292 0.35661143 0
2.1355348 4.9785895 0.37583855 0
2.2206037 4.9683762 0.38161665 0
2.309741 4.9576015 0.41523224 0
2.4149711 4.9450254 0.40318736 0
2.5927525 4.8118176 0.3665109 0
2.7378774 4.9064145 0.36948097 0
2.7089138 4.8543901 0.36343032 0
2.6820905 4.801136 0.35718819 0
2.8243241 4.8960719 0.36143473 0
2.5875471 3.8455524 0.35243806 0
2.576967 3.7584059 0.34629768 0
2.564312 3.6531138 0.34579223 0
2.552047 3.5532055 0.33142316 0
2.5406923 3.4604716 0.3196817 0
1.7064019 -0.30129123 0.29758683 0
2.9242363 4.8841143 0.35268155 0
2.5342071 3.407403 0.31365633 0
2.5300331 3.3731894 0.31014356 0
2.4411092 2.6339734 0.30243549 0
2.4317939 2.5553486 0.30933139 0
2.4197567 2.4534869 0.31995517 0
2.4128206 2.39467 0.32689181 0
1.7627399 -0.30804539 0.29456818 0
3.028563 4.8715596 0.36274132 0
2.4067268 2.3429027 0.33357272 0
2.3952718 2.2479901 0.33054614 0
2.3848708 2.1607244 0.33486727 0
2.372664 2.0566587 0.35063171 0
2.3615923 1.9643368 0.351533 0
2.3483019 1.8567293 0.33170334 0
2.3368576 1.7600789 0.34055522 0
2.3258295 1.6660187 0.35510799 0
2.313138 1.562849 0.33882904 0
2.2984977 1.4416933 0.33400273 0
2.2905557 1.3759015 0.33181968 0
1.8459489 -0.31802225 0.29023924 0
3.1139891 4.8612165 0.37448996 0
2.2844162 1.3236642 0.33907992 0
2.2755368 1.2500712 0.33688912 0
2.2635458 1.1520889 0.32481974 0
2.2521822 1.0555606 0.33725488 0
2.2399933 0.95199203 0.35074684 0
2.2312522 0.87770557 0.36052722 0
2.2176936 0.77198052 0.3153699 0
2.2001061 0.6278882 0.30086634 0
1.9797122 -0.28071189 0.28006005 0
3.2042475 4.8504066 0.36780947 0
2.0734391 -0.31863427 0.27736259 0
3.3066432 4.8381386 0.36106473 0
2.1664848 -0.35647035 0.27494878 0
3.4066882 4.8261466 0.35530099 0
2.2695832 -0.36884284 0.27053112 0
3.5047493 4.8143868 0.35055196 0
2.371165 -0.38103414 0.26642662 0
3.6152372 4.8011303 0.34622362 0
2.4714267 -0.39306879 0.26262221 0
3.7110584 4.7896285 0.34336215 0
3.8065724 4.7781572 0.34140158 0
3.9159968 4.7650099 0.340177 0
3.9986727 4.7550712 0.33998632 0
4.1102881 4.7416482 0.34071633 0
4.2097673 4.7296786 0.34228033 0
4.3116941 4.7174087 0.34480917 0
4.4164314 4.7047954 0.34826165 0
4.5009227 4.6947317 0.33312976 0
3.8629799 1.7501724 0.27748877 0
3.8106308 1.6384994 0.30243519 0
4.5789776 4.6692729 0.3154031 0
4.5740118 4.5478339 0.33240163 0
4.5627904 4.451725 0.34978226 0
4.5520797 4.3650284 0.33368596 0
4.5426641 4.2840719 0.35035691 0
3.9860163 1.7590619 0.28361031 0
3.9390259 1.76249 0.27921143 0
4.034483 1.7556753 0.28850171 0
4.8330374 4.6401348 0.32860389 0
4.9057732 4.6313629 0.33303523 0
3.7822549 -0.55056119 0.23667839 0
4.9999137 4.6200075 0.33913869 0
3.8822834 -0.5625906 0.23651573 0
5.0988593 4.6080685 0.34605777 0
3.9835944 -0.57477546 0.23660041 0
5.2025714 4.5955529 0.35376126 0
4.0604849 -0.58402443 0.23682114 0
5.2965202 4.5842905 0.33201778 0
4.1383934 -0.59339714 0.23720267 0
5.3800502 4.5742493 0.32352966 0
4.2437849 -0.60607696 0.23793092 0
5.4646363 4.5542707 0.28332475 0
5.4702549 4.4634848 0.31982291 0
5.4588232 4.3632479 0.35185367 0
5.4445496 4.2465768 0.33778447 0
5.4488215 4.1682434 0.330147 0
4.3511887 -0.61900067 0.23893018 0
6.0104585 4.4982224 0.32210261 0
6.1110792 4.4860783 0.32973596 0
5.7776279 2.8327184 0.29681224 0
5.769958 2.7690277 0.29525465 0
6.2165751 4.4733438 0.33789513 0
5.7719541 2.7208552 0.29538533 0
5.0844789 -0.70725226 0.25205404 0
6.290432 4.4644289 0.34371343 0
5.6441078 1.5406404 0.28760019 0
5.6264949 1.4533973 0.28257903 0
5.1491599 -0.71503901 0.25368899 0
6.3799849 4.43578 0.34959754 0
6.3827033 4.3333111 0.34265429 0
6.3728604 4.2523394 0.33628204 0
6.3633184 4.1738176 0.33029759 0
6.3540001 4.0971141 0.32460621 0
5.7609043 1.5414357 0.24480709 0
5.2484522 -0.72699285 0.25634184 0
5.3501596 -0.73923802 0.25920376 0
5.4196792 -0.7476089 0.26125729 0
7.1378465 4.3777361 0.27864406 0
7.589035 3.1454482 0.26897466 0
7.5819845 3.0869803 0.26744896 0
7.5749702 3.028801 0.26600316 0
7.2439351 0.27039003 0.28022507 0
6.8413515 -3.0699496 0.20585701 0
6.8923168 -2.9632547 0.20272839 0
6.8212366 -3.2382665 0.21133608 0
1.5500891 5.0483141 0.51406229 0
1.6133716 5.040761 0.50518864 0
1.7043114 5.0299063 0.49262056 0
1.8194964 5.0161562 0.47699976 0
1.9281076 5.0031877 0.46261829 0
2.0308576 4.9909172 0.44935161 0
2.1213493 4.9797287 0.49900177 0
2.2225132 4.9674668 0.51496524 0
2.311074 4.9568977 0.50244987 0
2.4162893 4.9443378 0.48812899 0
2.6017947 4.8100572 0.47465864 0
2.7391536 4.9057708 0.44818002 0
2.710917 4.8531356 0.47992656 0
2.6839206 4.8002024 0.47168964 0
2.8262334 4.8951168 0.47785157 0
1.7090194 -0.30241203 0.42702538 0
2.9261322 4.8831758 0.46676257 0
1.7653331 -0.3091588 0.42323276 0
3.0161185 4.8724184 0.46502388 0
2.3596783 1.9413697 0.39719793 0
2.3504343 1.8621595 0.41177002 0
2.3383906 1.7588422 0.43149814 0
2.3274302 1.6647189 0.45009503 0
2.3148055 1.5614846 0.43787 0
2.300982 1.4483993 0.42481244 0
2.2923465 1.3744161 0.43832377 0
1.8485066 -0.31912494 0.41781291 0
3.1158757 4.8602991 0.48527563 0
2.286247 1.3221399 0.44799632 0
2.2749786 1.2295581 0.43993881 0
2.2655013 1.1504406 0.44129485 0
2.2535307 1.0544162 0.41760555 0
2.2413962 0.95079279 0.43441111 0
2.2326944 0.8764658 0.44659171 0
2.2164483 0.74245501 0.43840602 0
2.201715 0.62660551 0.39409524 0
1.9821869 -0.28178358 0.40431148 0
3.2061298 4.8494997 0.47707146 0
2.0758934 -0.31970167 0.40139848 0
3.3085239 4.8372407 0.4688563 0
2.1689208 -0.35753512 0.39887801 0
3.4085715 4.8252554 0.46191153 0
2.2719841 -0.36989737 0.39348969 0
3.5066397 4.8135009 0.45628357 0
2.3735342 -0.38207984 0.38852885 0
3.6583059 4.7953076 0.44973725 0
3.6034186 4.8018932 0.45179585 0
2.4737666 -0.39410663 0.38397861 0
3.7129776 4.7887449 0.44811133 0
2.5728679 -0.40599966 0.37982398 0
3.8085124 4.7772717 0.44611907 0
2.6710174 -0.4177804 0.37605211 0
3.9179673 4.7641182 0.44517434 0
2.7683878 -0.42947006 0.37265182 0
4.0006704 4.7541742 0.44542235 0
2.8651457 -0.4410882 0.36961341 0
4.1123285 4.7407398 0.44705001 0
2.9614542 -0.4526546 0.36692905 0
4.2118516 4.7287588 0.44969672 0
3.0574732 -0.46418834 0.36459222 0
4.3138294 4.7164736 0.45362151 0
3.1533613 -0.47570801 0.36259797 0
4.4186254 4.7038426 0.4587726 0
3.2492752 -0.4872334 0.36094269 0
4.517045 4.6921616 0.43455246 0
3.3453722 -0.49878311 0.35962427 0
4.5810518 4.6679645 0.42772573 0
4.5758028 4.546278 0.43933347 0
4.5639367 4.4507365 0.41821021 0
4.5537562 4.363637 0.43259138 0
4.544302 4.2827635 0.4458271 0
3.4660225 -0.51328611 0.35846618 0
4.6146297 4.2935162 0.4581829 0
4.6554375 4.2631407 0.45730934 0
3.5874643 -0.52788806 0.3577995 0
4.8346725 4.6394477 0.40731978 0
4.7840552 4.5184436 0.45709777 0
4.7317457 4.2539067 0.46697932 0
4.6855087 4.2595019 0.46104121 0
3.6854689 -0.53967404 0.35766247 0
4.9074488 4.6306629 0.41308182 0
4.8655806 4.4552965 0.45514572 0
4.7791877 4.2481642 0.47327405 0
3.7843962 -0.55157351 0.35786954 0
5.0016437 4.6192894 0.42099139 0
4.9549465 4.3783493 0.45294154 0
3.8844216 -0.56360698 0.35842639 0
5.1006503 4.6073308 0.42992356 0
5.0296068 4.3070016 0.45104119 0
5.0707302 4.2646222 0.44996876 0
3.9857321 -0.57579756 0.35934013 0
5.2044291 4.5947928 0.4398399 0
5.1129446 4.2229486 0.44963709 0
4.062623 -0.58505082 0.36025324 0
5.3010526 4.5689945 0.44752976 0
5.1998353 4.1973715 0.45939386 0
4.1405334 -0.5944283 0.36139983 0
5.388783 4.4834819 0.44623014 0
4.7447729 1.4499285 0.44292182 0
4.2459273 -0.60711527 0.36324856 0
5.466578 4.5534019 0.37419561 0
5.446609 4.4177155 0.44467071 0
5.4602957 4.3620777 0.43909997 0
5.4459734 4.245451 0.42211145 0
5.4507465 4.1674948 0.41309917 0
4.3533354 -0.62004733 0.36549324 0
5.6147742 4.1931806 0.43985838 0
5.6651874 4.141448 0.44132379 0
5.3778152 2.9962597 0.44409648 0
5.3943224 2.9574459 0.44714749 0
5.7238393 4.1343474 0.44929647 0
5.1283803 1.4016051 0.4356429 0
6.0133162 4.4975348 0.42736694 0
5.6836944 2.939887 0.43973491 0
6.0796647 4.4895048 0.43419725 0
6.1150036 4.4354954 0.4331291 0
5.7787356 2.8317139 0.37719181 0
5.7710547 2.7680357 0.3754299 0
6.1493335 4.3808031 0.43207288 0
6.1823826 4.325284 0.43103215 0
5.7931447 2.7182827 0.37925979 0
5.0866885 -0.70837545 0.3896583 0
6.2247143 4.250196 0.42966604 0
6.2649307 4.1738834 0.4283267 0
5.6402903 1.5514433 0.41088349 0
5.6108527 1.431133 0.39533043 0
5.1513777 -0.71617007 0.39245939 0
6.2937503 4.1159153 0.42733961 0
6.3122387 4.0768933 0.42669103 0
6.0856886 2.8977275 0.43189821 0
5.7595186 1.56332 0.33503067 0
5.2506819 -0.72813702 0.39696002 0
6.0790024 2.6432071 0.42954794 0
6.0721941 2.570683 0.42895913 0
6.0591302 2.4621239 0.42828351 0
6.0455289 2.3719134 0.42791891 0
6.0292077 2.2820086 0.42775366 0
6.0063591 2.1745486 0.42779583 0
5.984592 2.0853996 0.42803213 0
5.9600935 1.9967041 0.42847094 0
5.8534145 1.5519581 0.34691614 0
5.3524032 -0.74039602 0.40177286 0
7.1413889 4.3764529 0.41625294 0
6.384244 -0.86379027 0.2962904 0
6.3404732 -0.91766644 0.29787585 0
6.4785123 -0.87514877 0.30026969 0
6.57551 -0.88683605 0.3044506 0
7.5914626 3.1436396 0.41205743 0
7.5844064 3.0851781 0.41016209 0
6.675395 -0.89887214 0.30884382 0
7.5773859 3.0270047 0.40837759 0
6.7783437 -0.91127753 0.31346089 0
6.8845429 -0.92407537 0.31831431 0
7.2306972 0.15962243 0.28377715 0
7.221683 0.084177971 0.28630668 0
7.2125173 0.0074578524 0.28896239 0
6.9941931 -0.93728971 0.32341748 0
7.2031932 -0.070602894 0.29174867 0
7.1937027 -0.15007293 0.29467016 0
7.1840372 -0.23102367 0.29773173 0
7.1741867 -0.31353104 0.30093879 0
7.1641426 -0.39767551 0.30429682 0
7.1486635 -0.52737975 0.30965108 0
7.1327438 -0.66080141 0.31533897 0
7.1218181 -0.75239134 0.31936508 0
7.110642 -0.84609532 0.32357642 0
7.0992012 -0.94202685 0.32798129 0
1.5515397 5.0474768 0.62042028 0
1.6148133 5.0399361 0.60980594 0
1.705739 5.029098 0.59477824 0
1.8209062 5.0153685 0.57611018 0
1.9295005 5.0024199 0.55893481 0
2.0410314 4.9889216 0.57331795 0
2.1311052 4.9777946 0.62116069 0
2.2238791 4.9667392 0.60543895 0
2.3124261 4.9561839 0.59089333 0
2.4176254 4.9436402 0.57426357 0
2.5870197 4.8111491 0.58443755 0
2.7411056 4.9047861 0.56854588 0
2.712961 4.8518562 0.59877622 0
2.6857882 4.7992496 0.58853704 0
2.8281822 4.8941422 0.59665132 0
1.7118207 -0.30326009 0.55748594 0
2.928067 4.8822174 0.58317757 0
1.7681047 -0.3099978 0.55291361 0
3.0242023 4.8707848 0.57124686 0
2.3021631 1.447425 0.49501213 0
2.2935653 1.3734047 0.51081914 0
1.8512359 -0.3199513 0.54639465 0
3.1171603 4.8596749 0.56070459 0
2.2874932 1.3211023 0.52213395 0
2.2778115 1.2376757 0.54041004 0
2.2674966 1.1487586 0.56012303 0
2.2566495 1.0639805 0.52415234 0
2.2428184 0.94957662 0.51923203 0
2.2341571 0.87520885 0.53384644 0
2.2201161 0.75461769 0.55778205 0
2.2032928 0.62522554 0.48838887 0
1.9848223 -0.28257799 0.52954447 0
3.2074108 4.8488822 0.55146253 0
2.0784988 -0.32049084 0.52641529 0
3.3098044 4.8366294 0.54224581 0
2.1714988 -0.35832047 0.52378815 0
3.4098537 4.8246493 0.53449672 0
2.274518 -0.37067056 0.51742184 0
3.5079265 4.8128977 0.52827001 0
2.3760266 -0.3828423 0.51159835 0
3.6596057 4.7947063 0.52114499 0
3.604713 4.8012919 0.52336311 0
2.4762204 -0.39485955 0.50629663 0
3.7142844 4.7881432 0.51942855 0
2.5752859 -0.40674376 0.50149882 0
3.8098338 4.7766685 0.51741481 0
2.6734018 -0.41851735 0.49718899 0
3.9193091 4.7635121 0.51666063 0
2.7707405 -0.43020034 0.49335375 0
4.0021038 4.7538605 0.51729208 0
2.8674691 -0.44181252 0.4899818 0
4.1138091 4.740417 0.51953149 0
2.9637504 -0.45337415 0.48706377 0
4.213378 4.7284255 0.52291638 0
3.0597441 -0.46490335 0.48459226 0
4.3154068 4.7161293 0.52779281 0
3.1556089 -0.47642016 0.48256159 0
4.420259 4.7034845 0.53410208 0
3.2515011 -0.4879427 0.48096821 0
4.5130672 4.6922855 0.54081661 0
3.347578 -0.49949074 0.47981003 0
4.5832696 4.6668048 0.54236192 0
4.5770569 4.5452781 0.51210958 0
4.5651383 4.4497886 0.48775706 0
3.4682055 -0.51399326 0.47899711 0
3.5896275 -0.52859521 0.47882232 0
3.6876183 -0.54038239 0.4791981 0
3.7865322 -0.55228376 0.48002291 0
3.8865464 -0.56432056 0.48130473 0
3.9878464 -0.57651448 0.48305419 0
4.0647306 -0.58577132 0.48466507 0
4.1426353 -0.59515262 0.4865827 0
4.248023 -0.60784578 0.48956048 0
5.458806 4.3367124 0.5233168 0
5.4474168 4.2443104 0.50758284 0
5.4526982 4.1667361 0.49722388 0
4.8239026 1.4820733 0.44940028 0
4.7795496 1.470899 0.44435728 0
4.3554258 -0.62078476 0.49306014 0
4.9297423 1.4715109 0.46888161 0
5.0816927 1.5251437 0.48644653 0
5.0411425 1.4830247 0.48619366 0
5.231585 1.7230818 0.48547447 0
5.1813107 1.6512986 0.48575553 0
5.1190524 1.5701391 0.48616797 0
5.1542325 1.4199524 0.43693787 0
5.5645337 2.8922343 0.48822892 0
5.5692105 2.8054473 0.48858979 0
5.4164739 2.0701094 0.48513287 0
5.3871965 2.0033991 0.48508891 0
5.3426261 1.9116122 0.48510352 0
5.2932281 1.8222506 0.48522276 0
5.2554903 1.7597909 0.48536226 0
5.2073631 1.4357265 0.4429383 0
5.5674734 2.7475207 0.48813748 0
5.5637965 2.6896541 0.48771951 0
5.5534854 2.5886617 0.48705813 0
5.538342 2.488204 0.48648578 0
5.5179105 2.3886034 0.4860132 0
5.4927101 2.2900269 0.48563236 0
5.4623203 2.192842 0.48535386 0
5.4326773 2.1106887 0.48518765 0
5.3205881 1.4245635 0.46233353 0
5.7846317 2.894645 0.46034923 0
5.7801199 2.8306906 0.45870066 0
5.7724357 2.7670171 0.45673275 0
5.4669771 1.4800898 0.47933248 0
5.4096837 1.4171339 0.47768885 0
5.7987099 2.7169237 0.46235549 0
5.6644864 1.816081 0.47867826 0
5.6341281 1.7554653 0.47870409 0
5.5855289 1.6660914 0.47880924 0
5.5330648 1.5788553 0.47899979 0
5.8862791 2.6264286 0.48155263 0
5.8753023 2.5259495 0.48090717 0
5.8599939 2.4259593 0.48034167 0
5.8403697 2.3266475 0.47985724 0
5.8164587 2.2282019 0.47945485 0
5.7882967 2.1308091 0.47913593 0
5.7559257 2.0346558 0.47890064 0
5.7193995 1.9399259 0.47875005 0
5.6859226 1.8621631 0.47868744 0
5.6166339 1.3487285 0.42709148 0
6.3577428 4.0942707 0.54391223 0
6.0562949 3.0042059 0.52009147 0
5.7603598 1.5626426 0.42753917 0
5.9328098 1.8885876 0.43025184 0
5.917038 1.7942622 0.43380076 0
5.9053073 1.6958048 0.43895957 0
5.8802857 1.5803926 0.44408527 0
5.4219313 -0.74877667 0.40519908 0
6.3866386 -0.8651104 0.46191117 0
6.3433189 -0.91956663 0.46416551 0
6.4809227 -0.87648463 0.46823272 0
6.5779338 -0.88818908 0.47485852 0
7.2423015 0.23194039 0.44168177 0
7.2334528 0.15769792 0.44537193 0
7.2244625 0.082240701 0.44923851 0
7.2153206 0.0055069923 0.45328748 0
7.2060218 -0.07256794 0.45752528 0
7.196557 -0.15205264 0.46195868 0
7.1869183 -0.2330184 0.46659493 0
7.1770973 -0.31554186 0.47144186 0
7.1670828 -0.39970255 0.47650757 0
6.8454409 -3.0726004 0.44434267 0
6.895947 -2.9651628 0.43877977 0
1.5530114 5.046628 0.72828197 0
1.616275 5.0390987 0.71590137 0
1.7071872 5.0282784 0.69837832 0
1.8223358 5.0145702 0.67661864 0
1.930913 5.0016418 0.65660888 0
2.0343375 4.9890232 0.68618464 0
2.1325085 4.9770389 0.71538258 0
2.2252676 4.9659986 0.69741958 0
2.3138008 4.9554586 0.68080902 0
2.4189839 4.9429312 0.66183114 0
2.2524209 1.0187249 0.58940482 0
2.2442641 0.94834065 0.60544521 0
2.2356434 0.87393165 0.62253362 0
2.2216694 0.75327134 0.65051973 0
2.2048926 0.62382698 0.58398801 0
1.9873443 -0.28367043 0.656169 0
2.0809994 -0.32157946 0.65282094 0
2.1739812 -0.35940599 0.65008593 0
2.2769651 -0.37174559 0.64273119 0
2.3784411 -0.38390827 0.63603532 0
2.4786048 -0.3959167 0.62997395 0
2.5776429 -0.40779448 0.62452573 0
2.6757336 -0.41956067 0.619672 0
2.7730491 -0.43123841 0.6153971 0
2.8697567 -0.44284582 0.61168778 0
2.9660192 -0.4544034 0.60853344 0
3.0619962 -0.46592999 0.6059255 0
3.1578455 -0.47744489 0.60385799 0
3.2537251 -0.48896646 0.60232693 0
3.3497906 -0.50051379 0.6013307 0
3.4704061 -0.51501727 0.6008665 0
3.5918186 -0.52962089 0.60118872 0
3.6898036 -0.54141116 0.60208291 0
3.7887135 -0.55331612 0.60353184 0
3.8887258 -0.56535673 0.60554653 0
5.1452761 4.6011715 0.60705495 0
3.9900253 -0.57755613 0.60814035 0
5.2084975 4.5935154 0.61597115 0
4.0669098 -0.58681703 0.61045629 0
5.2956514 4.5826492 0.62864554 0
4.1448154 -0.59620357 0.61315316 0
5.387207 4.5715561 0.64257443 0
4.2502065 -0.60890412 0.61727208 0
5.4720297 4.5502687 0.6538676 0
5.4756331 4.4592156 0.63763267 0
5.463305 4.3596854 0.61738843 0
5.448884 4.2431507 0.59443527 0
5.4546828 4.1659646 0.58275598 0
4.3576145 -0.62185144 0.62204021 0
6.0183201 4.4955969 0.64172959 0
